16.1220   15.1500   21.1390
15.0460   14.9660   20.9550
16.3700   16.5410   21.5360
16.5820   14.2430   22.2760
16.3840   13.1970   22.0230
15.8760   14.5980   23.4760
15.5200   15.4950   23.3890
18.0560   14.4480   22.5530
18.2150   15.4640   22.9250
18.4310   13.4850   23.5510
17.6860   13.4180   24.1630
18.8890   14.2240   21.2980
18.8750   13.1610   21.0440
18.3690   15.0590   20.1130
18.5050   16.1120   20.3700
16.9100   14.8180   19.9380
19.0640   14.8630   18.7580
19.8750   15.5880   18.6530
18.3550   15.0290   17.9440
19.6140   13.5440   18.6530
20.5170   13.5690   18.9960
14.7070   20.3340   21.1420
14.0110   21.1810   20.9810
16.0320   20.8040   21.5670
14.1400   19.4450   22.2440
13.1390   19.1030   21.9700
14.0850   20.1920   23.4700
14.6840   20.9530   23.4150
15.0550   18.2620   22.4880
16.0110   18.6190   22.8800
14.4000   17.4200   23.4520
13.9630   18.0120   24.0810
15.2870   17.4730   21.2070
14.3640   16.9620   20.9270
15.7610   18.3820   20.0560
16.7380   18.7820   20.3360
14.8230   19.5290   19.9130
15.9500   17.7290   18.6800
16.9830   17.3930   18.5710
15.7450   18.4540   17.8880
15.0850   16.5970   18.5280
15.5550   15.8150   18.8490
18.4850   24.1540   21.3100
18.8700   25.1840   21.1880
19.5500   23.2270   21.7120
17.4220   24.1600   22.4030
16.6270   24.8640   22.1470
18.0290   24.5400   23.6490
18.9880   24.4040   23.5970
16.8540   22.7690   22.5940
17.6370   22.1070   22.9710
15.7900   22.8810   23.5540
16.0780   23.5330   24.2080
16.2990   22.2170   21.2890
15.3960   22.7710   21.0190
17.3320   22.3030   20.1490
18.1650   21.6470   20.4140
17.8580   23.6910   20.0580
16.8750   21.8590   18.7530
17.1020   20.8010   18.6090
17.4050   22.4260   17.9850
15.4610   22.0470   18.5940
15.0200   21.2390   18.8840
23.6810   22.7880   21.4760
24.7680   22.9740   21.3700
23.4090   21.3880   21.8260
23.1450   23.6730   22.5960
23.3600   24.7230   22.3780
23.7670   23.2940   23.8340
24.1300   22.3980   23.7550
21.6540   23.4630   22.7670
21.4710   22.4390   23.1070
21.2120   24.4050   23.7560
21.9130   24.4600   24.4190
20.9120   23.7120   21.4630
20.9410   24.7790   21.2310
21.5120   22.9000   20.3000
21.3600   21.8430   20.5260
22.9770   23.1430   20.2300
20.9120   23.1240   18.9050
20.1100   22.4030   18.7280
21.6740   22.9740   18.1380
20.3690   24.4450   18.7870
19.4440   24.4140   19.0680
25.0990   17.6030   21.4720
25.8030   16.7590   21.3420
23.7470   17.1270   21.7950
25.5870   18.4690   22.6280
26.6050   18.8170   22.4300
25.5580   17.6980   23.8400
24.9650   16.9400   23.7280
24.6570   19.6490   22.8320
23.6770   19.2840   23.1510
25.2440   20.4690   23.8560
25.6360   19.8660   24.5010
24.5120   20.4630   21.5540
25.4530   20.9790   21.3490
24.1190   19.5780   20.3560
23.1270   19.1730   20.5600
25.0640   18.4340   20.2540
24.0260   20.2580   18.9830
23.0000   20.5960   18.8100
24.2840   19.5500   18.1930
24.8980   21.3930   18.9130
24.4070   22.1670   19.2170
21.3190   13.7840   21.3040
20.9440   12.7550   21.1340
20.2290   14.7030   21.6500
22.3050   13.7550   22.4670
23.1160   13.0550   22.2520
21.6130   13.3510   23.6600
20.6600   13.4880   23.5450
22.8580   15.1410   22.7250
22.0490   15.7960   23.0600
23.8540   15.0090   23.7520
23.5210   14.3450   24.3720
23.5000   15.7190   21.4710
24.4210   15.1690   21.2540
22.5490   15.6570   20.2630
21.6980   16.3070   20.4820
22.0320   14.2710   20.1080
23.1010   16.1280   18.9100
22.8810   17.1900   18.7720
22.6230   15.5770   18.0960
24.5200   15.9420   18.8450
24.9420   16.7440   19.1810